ply
format ascii 1.0
comment Created by Open3D
element vertex 1325
property double x
property double y
property double z
property uchar red
property uchar green
property uchar blue
end_header
30.573 44.3287 -90.0849 115 160 183
26.5268 37.4918 -90.6166 102 114 72
35.718 43.7815 -90.9684 150 153 155
40.5855 31.4048 -90.836 156 158 162
43.3325 41.9583 -91.1257 149 149 152
44.1219 35.1291 -90.9684 156 158 161
34.6979 43.6439 -90.973 147 142 119
27.9866 48.7438 -90.928 104 114 62
37.9917 41.5321 -91.0905 159 160 164
35.8346 40.7566 -90.9412 149 148 150
34.0864 45.9498 -90.9795 146 146 106
30.3039 32.7716 -90.701 99 108 66
28.8004 33.24 -90.5796 106 113 78
39.5738 35.3167 -90.9366 154 158 161
45.0701 41.2402 -91.0544 145 146 150
44.7826 49.5592 -91.0975 146 149 152
30.4077 44.9478 -90.04 114 151 172
39.9882 42.3093 -91.0852 159 161 166
41.6664 31.6172 -90.782 160 161 164
40.7042 42.9911 -90.957 165 166 170
30.57 33.7208 -90.6855 68 106 48
41.5259 33.4256 -90.9753 162 163 168
32.8384 40.013 -90.7279 48 55 50
41.086 49.4696 -91.2295 159 160 165
30.6113 34.1919 -90.6768 81 107 53
44.333 40.3245 -91.0926 147 149 152
39.0973 44.1136 -90.9881 165 165 169
30.8675 35.9484 -90.7481 105 115 72
36.2665 35.1871 -90.775 168 170 152
27.2034 32.8822 -90.5481 107 115 76
32.115 37.2745 -90.2545 29 31 39
37.6163 44.7756 -91.1462 156 157 161
31.9391 30.5234 -89.8491 82 133 126
29.2685 50.1054 -90.0701 43 245 222
30.792 52.9158 -90.9918 49 62 61
34.9984 31.5668 -90.6795 104 121 70
36.2377 43.8701 -91.0457 158 159 161
36.9344 30.4994 -90.6972 163 160 141
28.8109 41.6186 -90.8219 129 141 88
40.3646 34.7104 -90.8538 157 160 165
28.3278 35.431 -90.6299 129 141 99
31.3197 34.4238 -90.3781 42 62 98
35.871 37.8966 -90.8688 171 168 164
41.7138 32.9237 -90.8394 158 161 165
40.519 46.3077 -91.2006 164 166 171
31.3467 37.0274 -89.9957 162 237 233
44.107 50.5932 -91.2517 149 151 154
43.6639 40.3138 -90.9838 148 149 153
31.9642 33.8952 -89.7695 134 217 241
42.954 44.2287 -91.0654 155 158 161
30.2629 33.0293 -90.6977 97 120 68
39.0399 47.6922 -91.2256 159 160 164
31.2596 37.934 -90.001 168 234 224
35.5228 37.4428 -90.8149 145 144 109
37.8021 48.2862 -91.1021 148 148 152
30.0257 44.2788 -89.9658 147 219 236
26.2201 33.6737 -90.5242 121 113 90
42.3022 45.0229 -91.1182 162 165 167
39.6562 48.1515 -91.1374 161 163 167
39.1733 44.3454 -90.9929 163 164 169
30.9972 32.6983 -90.7272 89 104 61
35.7162 44.864 -91.0346 148 148 151
35.9104 39.4326 -90.9528 153 149 151
43.9998 40.168 -91.0011 150 150 153
39.7014 48.687 -91.0352 148 150 153
33.5697 32.483 -90.2957 89 106 122
26.4382 30.6901 -90.4601 114 114 82
41.3927 49.1515 -91.1614 159 160 164
26.2455 45.7123 -90.7962 98 113 71
33.7923 31.5127 -90.2176 74 68 78
40.1026 30.3856 -90.7494 161 162 166
38.0597 31.065 -90.7699 150 149 153
33.5868 41.392 -90.8994 120 128 87
43.8031 35.0196 -90.8848 156 158 161
42.3788 41.2568 -91.0618 157 157 160
40.4133 35.6143 -90.8894 160 160 163
42.8736 33.5883 -90.8162 160 162 165
33.6733 39.6629 -90.8562 108 122 75
38.0198 31.9378 -90.7451 152 152 155
43.4644 38.6877 -90.9725 153 153 158
39.1094 44.2588 -91.0528 164 165 169
28.3809 29.9574 -90.49 121 129 92
28.7942 29.9468 -90.5435 94 115 65
27.1057 48.4615 -90.8803 97 114 61
39.2316 31.3091 -90.7381 155 157 161
32.9534 40.1538 -90.8334 100 109 86
32.9906 40.4586 -90.7915 113 128 105
32.0555 36.7884 -90.342 61 60 85
34.3678 37.5925 -90.8453 129 136 98
37.4497 51.0867 -91.1203 141 140 140
30.0386 36.4052 -90.7551 107 126 74
41.4552 31.2565 -90.7216 159 162 166
26.2968 42.9557 -90.729 93 113 65
28.863 29.9214 -90.5143 94 114 68
29.6738 39.0701 -90.8533 101 114 60
44.8263 38.8145 -91.0146 152 152 155
29.9525 29.2351 -90.5383 110 112 79
29.7404 47.7506 -90.1371 51 239 215
42.8723 38.7336 -90.9572 151 155 158
42.8636 35.5567 -90.9163 160 162 166
44.4429 31.8214 -90.8208 163 165 168
28.2848 39.3461 -90.7465 107 126 66
41.6777 42.8938 -91.0473 160 161 165
42.088 34.3504 -90.8814 160 161 165
37.6288 43.7856 -90.9991 157 161 165
40.4213 47.1818 -91.0367 165 165 169
43.1949 50.6064 -91.2111 149 150 154
44.1771 47.9013 -91.1846 152 154 157
28.8732 44.404 -90.8923 101 116 64
38.1397 48.093 -91.0956 149 151 155
29.8607 37.1542 -90.7476 111 124 76
29.0309 42.0936 -90.8348 128 140 87
30.6377 29.3483 -90.5716 108 114 76
31.8383 30.0988 -90.5214 94 107 62
32.4134 38.3554 -90.1871 99 118 138
28.1214 33.0689 -90.5915 107 115 75
32.1772 35.9754 -90.5167 73 66 86
32.1538 45.306 -90.8782 77 83 64
34.59 38.8738 -90.8791 105 123 78
36.2452 32.3387 -90.7569 169 168 136
40.8828 44.2923 -91.1692 168 169 171
30.6575 37.6652 -90.7826 73 95 59
31.9783 31.64 -90.0274 118 197 224
38.1231 47.9933 -91.0997 150 151 155
33.6962 36.8608 -90.7241 78 97 66
43.6913 38.9797 -90.9713 149 150 153
39.6628 53.4368 -91.2192 149 151 153
36.6679 38.9308 -90.9952 158 159 160
39.8729 35.5009 -90.8624 158 161 166
33.6624 45.8344 -90.9739 127 134 95
43.4492 41.8738 -91.0499 151 150 152
33.8612 35.0563 -90.7248 61 71 58
34.2884 53.0773 -91.1296 133 137 95
36.8421 32.1895 -90.796 165 159 155
44.027 29.2455 -90.7951 159 161 165
35.5346 52.8621 -91.2123 147 143 139
37.9525 47.2634 -91.1149 154 155 159
36.6686 37.1774 -90.8498 157 158 158
40.8109 32.478 -90.8308 156 160 163
35.1089 30.5705 -90.7063 94 120 75
40.9473 36.6049 -90.8874 158 159 163
39.6085 48.8437 -91.2276 150 149 153
39.2368 47.2603 -91.2346 160 161 166
28.991 29.8684 -90.5749 104 114 72
35.2662 43.0905 -90.9974 147 145 146
43.8283 50.9334 -91.189 148 148 152
37.7122 35.7597 -90.8518 152 155 158
35.4212 50.738 -91.1135 105 106 108
33.2852 46.1256 -91.0052 126 135 91
26.9888 30.9113 -90.5871 116 120 85
35.1666 49.075 -91.0839 118 116 119
39.5375 44.2638 -91.1217 164 166 170
43.1687 37.2202 -90.8828 158 159 162
38.5484 44.0922 -91.0544 165 166 170
30.3546 49.4169 -90.7877 24 29 37
45.3125 49.0652 -91.3996 151 151 155
37.9283 46.0115 -91.1352 155 154 159
43.7897 31.488 -90.8912 164 165 169
30.336 46.3349 -90.1795 49 83 95
40.8553 39.71 -90.9124 160 164 167
40.1783 37.7631 -90.8931 162 164 168
34.6347 51.4198 -91.1077 120 116 116
36.9182 38.3716 -90.9397 160 161 162
44.5734 51.0538 -91.2059 148 149 152
43.2614 33.49 -90.851 160 162 166
35.1442 52.3197 -91.1772 130 125 126
35.9068 41.7888 -90.9283 154 155 157
29.3741 32.0026 -90.598 79 98 52
27.7822 44.1854 -90.8207 93 110 61
33.841 49.7722 -91.104 180 176 171
32.1017 30.6744 -89.9062 139 211 204
26.7973 37.8963 -90.6652 99 115 67
39.4154 35.7712 -90.8657 155 155 158
42.0085 42.0919 -91.0073 156 157 160
37.5203 42.0725 -91.0426 156 158 161
38.5739 50.688 -91.1508 152 151 154
44.8175 43.9268 -91.1254 158 159 161
32.5961 52.5199 -91.106 95 117 69
32.4659 50.9603 -91.0581 99 118 69
26.7092 46.7987 -90.8759 97 112 62
32.7698 49.4341 -91.0649 103 124 73
33.9871 30.7246 -90.6366 32 37 48
38.6178 29.4715 -90.745 155 157 161
28.779 40.7647 -90.8094 125 135 84
38.9817 45.4714 -91.1714 161 161 165
29.5488 41.936 -90.8459 119 134 83
44.2724 47.6663 -91.1372 153 154 158
33.2539 45.0796 -91.0032 136 145 99
31.7834 50.2953 -91.1361 105 110 74
41.9944 51.5944 -91.1796 149 150 154
27.1759 47.261 -90.9027 108 114 66
37.059 44.3717 -91.049 152 153 156
26.761 48.3098 -90.8503 103 120 64
44.1236 45.3707 -91.0771 154 155 158
40.3404 52.221 -91.1698 150 150 154
40.8738 35.3305 -90.9197 160 161 166
43.6008 53.5785 -91.2576 149 150 152
38.0318 30.7195 -90.7178 152 152 153
36.9051 50.3272 -91.1429 139 138 141
32.043 29.9851 -90.4456 74 93 57
42.6468 43.874 -91.0084 157 157 161
40.5921 29.6458 -90.7102 161 163 168
40.2276 49.8699 -91.2346 158 160 163
33.7497 39.8419 -90.913 112 125 80
42.8562 29.4639 -90.8053 162 163 168
40.2129 37.8251 -90.9133 162 164 168
40.5928 45.78 -91.0562 167 169 173
37.761 39.593 -90.9361 153 153 157
30.3595 46.7434 -90.413 37 95 93
34.9366 49.9421 -91.1509 116 115 117
27.4385 34.4999 -90.5633 98 114 68
35.4339 44.7567 -91.0557 140 143 146
30.4093 39.6589 -90.7474 78 90 57
27.8095 33.591 -90.6346 101 113 71
29.8916 48.9588 -90.3567 60 65 62
36.4604 50.9965 -91.1616 125 124 127
40.7854 32.8106 -90.8572 156 159 163
37.4429 44.9254 -91.0641 156 157 160
35.7231 42.6198 -90.9743 152 152 153
28.8673 52.8399 -90.4054 140 208 231
42.7855 31.7195 -90.802 162 163 167
43.9524 51.825 -91.2144 145 147 150
42.7941 30.3706 -90.8068 162 162 167
44.6747 31.4645 -90.8581 162 164 168
42.5093 40.4067 -91.0038 154 154 158
39.0208 52.949 -91.2238 148 146 148
44.6789 53.7468 -91.4056 151 151 154
33.8 52.1899 -91.1206 129 137 97
31.8549 31.0626 -90.4053 46 59 42
32.6341 41.3569 -90.5448 68 81 85
40.6587 42.8389 -91.0959 165 164 168
40.9606 50.2664 -91.1245 157 157 160
34.2005 39.6409 -90.8697 114 122 81
37.413 39.5579 -90.913 159 160 163
39.0527 36.9899 -90.8931 157 158 162
28.5587 37.9182 -90.7415 120 124 84
32.5929 30.4015 -89.7931 167 246 241
37.0514 45.6032 -91.0943 153 154 158
43.1408 42.3443 -91.1151 153 153 157
36.1199 41.5148 -91.0017 156 156 158
42.013 49.5552 -91.1469 157 158 162
40.6761 37.3864 -90.9064 159 162 167
39.8745 47.3381 -91.0885 162 164 168
43.8112 38.9728 -91.0879 148 149 152
30.4342 42.5726 -89.9722 160 226 243
41.0993 50.8841 -91.177 149 149 153
30.9727 29.5487 -90.6092 108 119 72
45.4422 37.6633 -90.9551 155 155 159
39.79 50.1225 -91.173 148 148 150
40.2899 44.7675 -91.1294 165 167 171
40.5373 38.8831 -90.9464 162 163 167
33.1236 30.8671 -90.644 111 105 126
37.2631 44.9122 -91.041 157 158 161
38.0485 32.8243 -90.7953 152 151 152
30.701 42.6232 -89.9673 127 187 215
28.1902 39.4875 -90.7216 103 123 64
44.9862 31.7004 -90.9228 160 161 165
42.9807 49.8858 -91.0945 152 154 158
36.0382 42.4685 -91.1005 159 160 162
37.8055 39.6656 -90.9398 153 153 157
37.058 50.7672 -91.1501 137 137 139
26.6093 37.188 -90.5971 104 120 75
43.5604 39.8348 -90.9567 150 148 153
45.2651 49.6595 -91.1969 147 147 151
41.1941 50.2999 -91.2377 154 154 157
35.6911 43.2047 -91.0072 154 155 157
32.0895 35.5633 -90.2984 48 56 73
38.4716 43.518 -91.0046 162 165 169
40.9979 45.8223 -91.0216 169 169 172
43.0026 45.7539 -91.107 160 161 165
43.0062 42.8996 -91.1034 154 156 158
32.9982 48.0404 -91.0504 109 129 76
40.1452 29.67 -90.7538 164 167 171
35.9355 44.7644 -91.2185 156 155 160
39.7638 49.8617 -91.2036 154 154 156
33.5582 37.2652 -90.684 60 87 70
44.7923 30.9983 -90.7733 162 163 167
30.9899 40.2962 -89.9172 140 204 224
27.3563 29.3298 -90.5101 105 112 71
32.9239 45.7746 -90.9389 128 140 93
33.8263 29.6164 -90.1425 123 140 160
34.7827 51.9969 -91.1938 128 124 122
33.6612 33.0959 -90.5098 53 50 57
27.1862 34.6021 -90.5937 111 121 80
28.6046 34.4327 -90.5828 130 135 92
33.821 39.046 -90.8337 113 126 80
44.8866 35.4414 -90.9438 158 159 163
44.0987 50.929 -91.1361 151 152 155
43.7024 41.2077 -90.9879 147 147 151
44.7541 48.8403 -91.2185 148 149 153
29.2276 42.4794 -90.8989 123 135 78
42.6135 31.5862 -90.6925 162 164 168
30.2003 33.2425 -90.6987 94 121 64
29.2607 45.4538 -90.9257 83 99 57
29.8825 42.8463 -90.3719 107 118 84
43.1348 36.5742 -90.9611 158 161 164
39.8033 42.1156 -91.0054 158 159 163
33.174 40.2763 -90.8451 111 121 81
34.8352 46.8766 -91.029 124 119 118
44.742 47.5855 -91.1905 152 155 158
36.9739 29.2251 -90.6965 139 144 113
36.7846 30.1647 -90.701 146 144 106
27.5078 30.2852 -90.5401 99 107 68
28.4566 32.6485 -90.6587 91 106 63
37.4494 36.2618 -90.8749 153 154 158
38.6154 37.432 -90.7916 158 159 163
44.0398 43.2962 -91.0566 153 154 158
39.3346 32.108 -90.869 155 157 160
43.6764 32.704 -90.8534 160 163 166
27.8032 45.6179 -90.8923 101 104 67
41.8034 31.3548 -90.7976 161 161 166
36.5011 48.7234 -91.0769 141 140 145
28.6817 30.6184 -90.5029 86 109 63
34.3236 38.6528 -90.8611 123 132 93
44.6478 36.1275 -90.8984 155 158 161
34.8041 41.3725 -90.9197 135 133 102
26.1534 34.5325 -90.5346 127 116 94
40.9779 49.5542 -91.1001 159 160 164
38.8608 41.5089 -91.0063 159 163 167
37.8752 31.6638 -90.8014 148 149 151
28.4459 31.5406 -90.5953 103 124 79
30.867 33.928 -90.7519 99 108 67
32.5852 32.7802 -90.4016 55 56 73
33.7434 32.6053 -90.6079 70 84 103
32.6398 47.2884 -91.0573 113 129 80
34.1277 52.5644 -91.1552 138 139 103
32.2568 39.5451 -90.5695 116 119 131
45.2084 49.9088 -91.2136 147 149 152
31.4829 31.8975 -90.5232 76 82 57
32.4632 53.5172 -91.102 89 123 65
26.7097 35.5001 -90.5926 109 113 77
45.4129 40.2802 -90.9986 146 146 150
31.2718 44.8237 -90.5792 97 100 113
30.0328 50.1948 -90.8881 62 71 76
30.1039 35.4661 -90.7491 116 131 78
27.4835 34.0053 -90.57 100 114 71
31.7427 41.5969 -90.3018 98 93 111
44.0161 37.417 -91.0738 154 156 160
37.5107 52.4101 -91.1915 131 131 134
32.78 45.7842 -90.9671 117 132 83
33.6626 36.7334 -90.7035 87 102 71
37.228 36.316 -90.8633 155 155 159
38.1685 29.5646 -90.7439 157 157 159
26.6991 47.8369 -90.9349 99 115 60
39.7754 37.4018 -90.885 160 162 167
42.75 44.7311 -91.1612 159 160 164
32.6453 38.8671 -90.299 60 55 69
43.636 50.216 -91.1244 146 147 152
26.5733 46.3337 -90.8177 95 112 67
32.4999 52.2445 -91.0736 98 115 68
30.5798 49.026 -90.6957 106 99 112
39.0042 43.4095 -91.0787 165 166 171
36.6791 29.861 -90.6376 141 144 112
37.959 46.2623 -91.1062 154 155 159
39.545 31.3985 -90.757 158 161 165
35.2421 31.2869 -90.6728 120 137 85
35.7051 39.1761 -90.919 166 162 161
39.8567 34.5149 -90.8726 152 157 160
29.6513 35.4058 -90.7013 115 128 79
44.2402 52.2874 -91.35 145 147 149
42.5232 31.8695 -90.6996 162 164 168
41.1559 45.2973 -91.1898 169 170 172
39.7225 41.376 -90.9914 159 159 163
40.6084 50.4239 -91.1436 154 155 158
33.7374 37.8877 -90.8048 99 116 78
39.1528 46.1994 -91.0974 162 163 166
44.5671 43.6799 -91.1312 153 158 161
32.1705 34.7978 -89.9862 53 63 78
27.0212 52.429 -91.0581 108 111 67
28.2292 32.1922 -90.547 102 118 76
35.8599 31.3536 -90.6493 144 145 107
30.032 36.4273 -90.7377 107 126 74
42.2923 29.4105 -90.7213 161 162 166
37.149 48.7667 -91.1021 160 159 159
42.274 38.9242 -90.9326 151 152 156
39.9346 37.598 -90.8889 160 163 167
38.9216 42.5762 -91.0025 162 164 168
39.9083 37.9967 -90.9263 163 167 170
34.1205 48.8962 -91.0395 161 153 154
40.2628 45.1518 -91.1669 166 167 172
30.2243 42.4545 -90.0094 146 208 222
37.7045 30.4741 -90.7612 148 151 154
35.9774 36.3886 -90.8583 171 168 148
40.4049 47.2897 -91.0467 165 167 171
29.3683 31.8469 -90.586 80 101 57
33.4071 51.4203 -91.1084 128 137 94
43.232 39.0652 -91.0122 153 152 155
38.307 35.8217 -90.8773 157 158 161
34.1764 37.9733 -90.8174 130 136 97
38.5157 39.2443 -90.9698 154 155 158
35.4001 49.2227 -91.1492 119 119 121
32.1403 44.1922 -90.593 53 62 74
28.6631 30.3862 -90.5189 88 108 65
39.0859 29.5217 -90.6434 159 160 165
28.8261 38.8288 -90.7785 102 112 65
33.8303 30.5777 -90.1935 93 98 109
42.0663 36.5558 -90.9143 157 159 163
42.3686 52.8076 -91.2799 145 146 150
29.4497 29.1756 -90.56 122 126 90
30.2161 36.4255 -90.7389 100 119 63
44.4369 44.8086 -91.0661 156 158 161
27.3226 32.0655 -90.5954 104 113 70
43.5961 29.6912 -90.8466 161 162 166
28.1466 31.7836 -90.5312 107 120 80
38.486 46.2456 -91.0437 158 160 164
35.5611 32.7619 -90.7424 119 132 87
29.9926 50.9097 -90.8702 46 47 51
27.7318 50.5588 -91.0334 115 127 72
30.5809 36.1501 -90.7829 109 135 74
33.921 46.7624 -91.0336 146 146 107
29.6086 42.028 -90.8939 119 135 82
31.2406 45.8701 -90.5649 131 127 146
38.6671 31.0408 -90.799 150 152 154
37.581 30.3002 -90.6928 146 149 151
34.6114 38.7289 -90.8374 103 118 73
33.5569 52.0148 -91.1144 127 136 100
30.1306 36.309 -90.8287 108 126 74
40.7304 50.8931 -91.1468 151 151 155
36.9263 50.3859 -91.1711 138 137 139
34.1704 39.4685 -90.8192 121 129 89
42.6371 43.1219 -91.0506 155 156 160
43.8736 43.0273 -91.0075 152 153 156
32.4547 51.4871 -91.0765 112 125 82
41.8438 33.2892 -90.858 156 160 164
38.4354 46.686 -91.1384 156 157 160
44.0566 36.3167 -90.9429 155 155 160
34.1125 37.4608 -90.8805 112 123 79
40.0473 52.2673 -91.2202 150 151 154
42.9382 50.3047 -91.2496 152 152 156
42.7191 35.7086 -90.8968 160 162 166
39.3266 42.2285 -90.9499 160 163 166
38.6468 37.7694 -90.9495 158 159 163
42.2628 50.3655 -91.2381 155 156 159
43.2478 44.8788 -91.1259 155 157 161
27.6129 38.8183 -90.6788 127 133 97
35.409 44.3253 -91.1493 148 148 148
39.5943 51.8013 -91.2357 152 152 153
41.9458 30.0688 -90.7981 163 166 171
30.9122 39.7854 -89.9213 178 247 243
34.849 36.9535 -90.8233 108 122 78
42.616 36.9029 -90.9705 161 163 167
43.2334 33.4029 -90.8286 161 162 166
35.9489 40.9478 -91.0541 152 153 154
36.556 41.2139 -90.8983 157 159 161
28.7357 42.807 -90.8502 122 133 80
38.6299 52.5388 -91.205 139 139 143
33.3526 53.1346 -91.1502 112 129 83
44.1257 46.054 -91.1227 154 156 158
36.1966 41.9842 -91.0115 160 160 162
41.4246 48.021 -91.1757 161 163 165
42.2905 50.6234 -91.2359 152 154 157
35.033 39.2226 -90.8511 144 144 113
44.895 43.7556 -91.1265 154 156 160
30.705 33.4475 -90.637 80 109 54
31.3511 37.5024 -89.9617 164 236 231
38.4261 36.8424 -90.9707 158 158 161
29.0411 31.8056 -90.5924 92 109 64
31.0393 44.5788 -90.5379 40 41 46
45.0677 39.5322 -90.9878 149 148 152
45.1169 40.0119 -90.9492 147 147 150
37.4259 48.9308 -91.1241 155 155 158
33.1252 52.5842 -91.1265 95 114 67
35.067 43.0463 -91.0694 155 160 151
41.6248 36.4105 -90.9337 158 159 163
34.1163 38.9827 -90.8697 124 134 95
32.223 43.344 -90.6621 64 62 68
27.6564 31.4062 -90.5543 109 121 78
39.7269 42.4068 -91.1151 158 160 165
29.435 29.9219 -90.5291 96 108 68
35.086 29.701 -90.6402 96 120 66
37.9513 29.2606 -90.7704 151 150 153
41.7054 45.3671 -91.0993 167 168 172
33.9451 45.3271 -90.9757 136 143 103
42.9111 46.2817 -91.1962 162 163 167
30.3397 31.9017 -90.6213 90 108 64
29.5153 35.2207 -90.7115 94 116 60
44.5441 48.9022 -91.2257 148 150 153
31.9361 44.5247 -90.9388 28 29 34
31.4146 38.8884 -89.9464 123 177 169
36.8088 38.1372 -90.9341 157 158 159
41.552 41.6769 -91.0131 159 160 163
42.5748 34.3286 -90.8716 160 162 165
29.2141 31.4786 -90.5572 84 101 61
26.2009 46.4891 -90.8012 92 111 63
36.5948 53.1503 -91.2508 129 129 129
33.6916 36.79 -90.7606 79 102 71
38.1627 42.0764 -91.0465 156 157 161
41.6592 49.3885 -91.114 157 160 163
42.1675 52.0299 -91.2302 146 147 150
35.8956 47.9084 -91.0943 126 125 128
34.2114 39.8524 -90.9172 114 123 85
44.68 49.4176 -91.3611 165 168 173
29.0761 34.8668 -90.7087 91 113 56
38.6525 30.9991 -90.8101 150 152 154
38.0196 45.6002 -91.0787 155 159 163
32.4414 37.7327 -90.2856 110 122 148
36.4083 30.8758 -90.6583 152 155 120
42.1016 31.0193 -90.7998 162 165 169
42.9959 50.2678 -91.2265 152 152 156
34.3586 40.638 -90.8306 119 124 90
33.6127 44.0277 -90.905 118 127 85
29.7112 29.6279 -90.5999 108 118 79
45.4911 52.0858 -91.2328 145 146 148
36.1402 30.591 -90.6791 130 140 101
36.0026 43.0643 -91.019 159 159 161
38.692 46.9436 -91.0172 155 156 160
39.2544 49.8479 -91.1169 147 147 150
30.0488 52.9446 -90.7494 113 115 136
39.0272 46.3776 -91.1362 162 164 168
33.4147 49.634 -91.0529 124 135 91
43.5205 32.0851 -90.8004 163 165 167
28.6763 33.0044 -90.582 96 108 70
42.0753 42.4571 -91.0412 155 156 160
32.0047 32.3878 -89.8109 139 218 240
36.5668 33.3617 -90.7758 170 172 155
38.4249 47.2431 -91.2118 156 157 162
43.228 45.2834 -91.1311 159 160 162
29.8252 51.3987 -90.9617 36 36 46
38.6793 47.757 -91.1044 153 156 160
35.8046 37.8624 -90.8539 171 168 164
42.3852 44.7971 -91.1418 161 163 167
43.8858 37.2577 -90.8993 153 154 157
33.554 30.6246 -90.2899 76 83 99
27.0406 44.5396 -90.8326 87 95 54
34.933 51.9336 -91.2069 126 123 119
33.7118 35.9983 -90.6282 115 112 89
37.6043 49.2479 -91.1625 154 155 155
37.4731 37.6689 -90.8485 160 162 165
40.2064 31.0525 -90.7613 159 159 162
38.3237 45.3332 -91.058 163 164 168
40.0054 31.901 -90.8191 155 154 159
42.7289 34.2899 -90.8869 159 162 165
38.0421 48.742 -91.154 149 149 151
27.4424 35.1054 -90.6144 95 110 64
34.8382 29.5923 -90.5515 106 101 73
38.1501 49.9189 -91.1715 141 139 142
32.9769 41.0685 -90.8003 135 131 94
42.4468 33.9961 -90.932 159 162 166
40.1201 43.5146 -91.0223 165 166 170
30.4283 29.3443 -90.59 109 115 77
26.6573 49.2697 -90.9169 108 115 65
37.9277 46.1521 -91.1053 153 153 157
45.4381 52.7013 -91.229 145 147 149
45.4068 52.3612 -91.323 145 147 150
39.1563 44.3097 -91.0014 163 164 169
33.4412 36.3746 -90.4113 37 42 49
32.2502 49.5311 -91.0332 83 106 57
42.111 42.4835 -91.0764 155 156 160
44.1863 40.2563 -91.0237 149 150 153
29.8174 50.9438 -90.7705 29 34 44
41.6072 46.0233 -91.183 167 168 172
43.0297 53.0408 -91.3854 147 148 151
27.8763 31.1472 -90.5485 115 129 89
35.4755 35.8074 -90.7795 127 141 100
28.6845 30.0883 -90.5261 104 121 74
30.8838 31.8809 -90.6546 75 92 50
38.6192 29.8901 -90.711 155 156 158
35.5563 32.2809 -90.6859 129 140 97
33.593 32.3968 -90.389 53 66 93
32.6219 44.4434 -90.9224 132 152 92
42.497 45.2999 -91.1503 163 164 168
33.1777 53.5486 -91.1187 108 125 77
34.8314 39.9536 -90.877 136 135 107
31.4216 31.1238 -90.621 90 96 61
39.5008 37.7195 -90.9383 161 163 168
43.8938 35.9002 -90.9975 154 157 161
30.4713 32.4446 -90.7086 89 109 60
27.7447 47.1239 -90.9278 109 116 71
30.624 33.3459 -90.6805 79 106 50
30.2415 51.3359 -90.8642 99 106 123
41.3629 44.0701 -91.0791 164 164 168
41.5069 38.5037 -90.9355 158 159 163
43.351 48.1001 -91.2457 156 160 163
43.6005 34.3424 -90.8984 159 160 164
39.6568 39.0857 -91.0072 160 161 166
37.8345 44.7217 -91.0032 158 161 164
40.7383 49.5777 -91.2893 158 161 165
28.1935 29.2383 -90.4967 106 120 72
40.6398 43.7405 -90.9591 163 164 168
44.4172 39.6778 -91.0908 148 148 152
38.0663 30.3712 -90.731 152 154 156
36.8025 36.1608 -90.8246 152 152 154
42.6844 30.626 -90.8415 162 164 169
42.855 43.064 -91.0464 155 155 160
38.4756 44.9314 -90.9832 161 162 166
44.6724 40.5432 -91.0251 147 147 150
28.7972 29.7782 -90.5407 101 115 68
44.3545 34.9673 -90.9758 156 159 162
33.5359 53.5665 -91.1407 115 135 87
45.1679 42.1749 -91.03 148 151 154
42.1874 49.753 -91.1698 156 156 159
28.0073 35.582 -90.6436 94 113 63
36.7316 34.7597 -90.8492 150 151 150
31.2476 46.363 -90.5813 100 122 142
36.8893 32.2115 -90.7372 159 159 155
41.4131 41.9813 -90.9929 155 156 160
43.5419 44.9024 -91.0554 155 157 161
35.1637 53.5479 -91.2028 152 139 106
30.0974 33.3242 -90.6111 91 116 61
45.0583 39.9648 -91.0027 147 147 152
35.389 40.3462 -90.9415 181 177 169
44.6828 36.3388 -90.973 157 158 162
41.0799 46.553 -91.0827 165 169 173
34.8265 38.224 -90.7586 103 121 75
36.5033 34.9247 -90.8493 157 155 155
27.7642 39.4865 -90.6581 122 132 92
27.634 30.2377 -90.4874 100 107 68
41.0764 41.5131 -90.9746 161 163 167
44.5795 37.6121 -91.1421 157 159 163
39.9277 34.9705 -90.917 155 158 162
44.5384 39.7833 -90.9875 145 148 151
35.4516 34.1571 -90.7286 127 133 96
43.3557 53.2199 -91.2822 146 147 150
44.4102 41.0784 -91.0377 147 148 152
32.4999 30.3131 -89.7848 167 247 242
30.9806 46.0971 -90.895 31 35 43
34.0828 37.4796 -90.8067 112 123 79
40.5297 48.6699 -91.1063 160 162 165
27.1638 52.8627 -91.0049 106 109 68
41.4037 51.1626 -91.3083 154 156 160
44.2442 40.6137 -91.1035 148 148 151
26.5469 30.35 -90.4909 117 118 87
40.8435 45.8911 -91.0801 169 170 173
41.9306 48.481 -91.2457 164 165 170
32.8198 36.5139 -90.3319 109 122 147
39.2809 44.5556 -91.0801 164 166 170
38.0431 47.5138 -91.1793 154 154 158
43.1604 33.3702 -90.8493 160 163 166
28.251 44.9158 -90.8606 93 109 60
34.5269 47.3708 -91.1288 119 115 113
28.0911 33.8292 -90.5932 111 124 82
37.9598 32.4947 -90.7122 152 154 156
38.0219 40.5886 -90.9872 149 151 154
40.0738 40.0693 -91.0343 159 161 165
29.4223 32.6147 -90.596 91 102 64
34.8447 42.4415 -90.9986 152 152 125
43.7925 33.3063 -90.8595 161 162 166
40.2088 39.7989 -91.0173 159 162 166
36.775 35.4924 -90.9691 149 148 148
28.3169 34.1789 -90.6743 112 121 82
43.7856 36.5482 -90.9708 156 157 161
37.7831 31.6302 -90.687 148 149 151
42.8951 33.3358 -90.9308 162 163 166
32.3306 43.7331 -90.7752 131 137 132
42.1597 37.0213 -90.9349 161 163 167
38.7951 48.1243 -91.1536 154 154 159
43.0217 52.8789 -91.3128 146 146 151
31.634 32.6117 -90.1048 57 120 123
29.1335 50.3223 -90.1305 45 243 224
27.0289 38.8531 -90.6577 94 112 62
32.9981 39.7669 -90.7428 75 89 74
36.8186 51.6194 -91.2042 130 128 129
43.7184 52.1309 -91.3661 155 155 159
31.5414 37.106 -90.0507 161 235 228
28.5489 31.5463 -90.5787 92 109 67
37.9522 33.4466 -90.8747 157 161 166
36.9472 48.181 -91.1095 151 150 154
34.0545 38.186 -90.8099 127 134 91
31.7747 34.6024 -89.8104 133 222 245
35.515 48.4019 -91.134 117 116 118
39.2961 35.1656 -90.9138 150 153 157
27.6696 43.4595 -90.8142 118 115 80
32.4403 38.6804 -90.4439 111 119 142
34.8743 34.0626 -90.7512 115 129 85
41.1745 47.5103 -91.2853 164 165 169
30.0646 44.0413 -90.0528 153 223 246
35.8917 46.9461 -91.0567 140 142 144
40.5237 43.9145 -91.0928 164 166 170
42.8759 42.5139 -90.9931 156 156 159
40.1032 50.2362 -91.1713 152 153 157
33.5077 44.0059 -90.9071 124 133 89
28.5086 47.2955 -90.9533 101 121 66
30.16 34.5015 -90.6468 63 95 45
35.9798 32.3816 -90.6867 157 155 122
33.5642 45.9921 -90.9389 119 132 90
39.5194 50.0379 -91.1077 146 146 149
45.093 40.2147 -90.9646 146 146 150
36.2609 31.0963 -90.6543 161 158 123
26.2147 39.1199 -90.633 106 118 78
37.8637 44.1309 -90.9827 159 161 165
45.2717 30.0324 -90.7885 152 155 158
43.9436 34.1683 -90.8707 159 161 165
31.8064 49.6192 -91.0977 113 122 79
34.4711 43.1935 -90.8877 139 140 102
30.2513 35.1545 -90.696 104 121 69
30.2104 36.2746 -90.6941 108 125 74
38.4454 39.8321 -90.9207 157 159 164
42.0514 50.9772 -91.2702 147 148 152
36.2116 41.4874 -90.949 157 158 160
32.0074 29.435 -90.5801 105 122 73
31.6055 46.9951 -90.9273 153 175 169
42.1891 40.3539 -91.1192 155 156 159
38.603 46.736 -91.1687 156 157 161
43.4247 45.9757 -91.2267 161 162 166
43.8465 39.3036 -90.9032 150 152 156
33.213 43.4751 -90.9335 135 141 96
26.2664 34.9514 -90.5759 123 113 85
34.4245 41.7736 -90.9561 145 149 116
33.2558 33.4824 -90.4275 124 130 146
32.3913 43.566 -90.7589 131 137 132
37.2616 34.1483 -90.7661 150 150 152
40.9787 30.2025 -90.7584 162 164 169
37.557 52.0107 -91.1714 132 130 133
30.7646 40.173 -89.9536 147 220 215
28.8992 48.0634 -90.9376 72 101 51
26.4571 52.5124 -91.0277 95 94 62
44.3561 35.3553 -90.9076 156 156 160
27.9575 38.895 -90.7076 115 121 85
30.6021 35.2565 -90.7859 109 127 71
40.5624 38.6556 -90.9387 160 163 168
45.201 52.0819 -91.3307 147 148 151
27.2395 45.778 -90.8548 94 101 60
45.3785 52.2173 -91.2241 145 148 151
33.1708 39.6507 -90.8468 96 106 74
30.1262 35.1771 -90.7714 113 126 77
40.8959 44.3654 -91.0736 168 169 171
43.5328 33.9875 -90.8978 160 160 165
35.1337 37.6595 -90.7731 135 143 103
31.8615 38.5518 -90.843 93 109 110
29.0789 34.6343 -90.7185 88 111 56
45.402 44.6007 -91.0336 154 156 160
29.6155 34.3312 -90.6285 72 92 50
44.4527 40.0073 -91.0207 145 148 150
27.0349 32.0278 -90.5908 106 111 72
33.6741 52.7732 -91.0715 101 117 71
39.8687 45.9719 -91.0771 157 161 165
26.6042 42.4318 -90.7836 92 106 64
35.23 42.0276 -90.9675 158 156 151
37.1244 43.2038 -91.1702 170 177 185
42.3725 42.4091 -91.0135 150 153 156
29.1102 32.4124 -90.5728 84 101 60
44.6647 53.436 -91.2317 150 151 153
38.4585 33.4018 -90.7687 150 151 153
44.5423 30.8292 -90.8286 161 162 166
44.8279 41.1001 -91.0198 147 146 151
43.808 53.2918 -91.277 147 148 152
36.4056 33.6057 -90.752 153 156 130
26.9564 35.2875 -90.5449 112 119 81
38.4237 38.8828 -90.9567 156 155 160
31.8238 29.3 -90.6369 112 124 80
30.2397 42.304 -90.0691 144 208 221
26.1883 48.484 -90.8298 96 116 64
32.1602 33.9489 -89.8822 101 167 198
37.4632 40.6833 -90.9578 151 151 154
31.2463 33.4161 -90.6546 113 111 85
33.8309 31.08 -90.0461 88 86 102
43.5269 46.9889 -91.0899 159 161 165
28.7451 42.2478 -90.8283 119 131 78
40.7031 48.8137 -91.0823 160 161 165
38.1962 31.7901 -90.8032 153 154 158
31.2133 38.9852 -89.8852 174 245 242
27.0053 42.2907 -90.693 117 123 86
33.1166 35.2928 -90.4725 134 128 149
43.4883 42.8597 -91.0336 153 153 155
44.7377 44.8938 -91.0837 158 160 163
27.0416 32.7183 -90.4922 112 118 77
38.2674 45.8306 -91.1575 155 157 162
26.7957 29.9679 -90.5081 124 126 94
35.0821 44.4334 -90.9936 133 136 137
43.1156 33.7474 -90.8569 159 162 165
44.7439 39.6161 -90.9907 147 149 153
44.7052 39.978 -91.027 146 148 152
39.707 50.3553 -91.1845 141 141 144
36.9032 40.5672 -90.9227 158 158 162
26.8948 38.8344 -90.6388 91 110 59
27.5294 40.0216 -90.6974 135 146 109
44.4499 41.4202 -90.9688 149 149 153
34.7502 34.9415 -90.7336 111 129 81
35.4136 45.9179 -91.0837 136 137 138
37.3934 51.1878 -91.1222 141 140 142
28.0601 47.1755 -90.9622 106 114 69
28.5227 43.8236 -90.8962 115 115 75
40.2197 37.7026 -90.9434 162 164 168
28.5132 50.1873 -90.9425 63 83 55
27.8911 33.2327 -90.5926 102 113 74
27.8401 50.1984 -90.954 106 117 66
36.8112 52.4273 -91.2293 127 127 129
39.3805 38.3628 -90.9407 163 164 168
33.9073 39.2429 -90.8601 112 126 81
33.8663 51.5203 -91.1717 159 159 143
40.4516 43.074 -91.0078 165 165 168
42.6682 38.3845 -90.9218 153 155 160
35.8576 43.0791 -90.9722 155 157 160
32.8538 46.8496 -91.0324 127 138 93
38.9487 39.7143 -90.9014 160 160 163
43.2826 40.0295 -90.9642 152 149 153
37.3829 53.699 -91.2322 133 131 133
42.9989 33.2165 -90.8375 161 163 166
27.8452 48.7837 -90.9059 110 123 69
32.3701 32.942 -89.9328 98 167 192
36.3247 36.9214 -90.8434 152 150 150
34.139 40.1367 -90.8959 119 125 87
32.0348 33.9615 -89.7818 133 205 228
35.6304 36.9962 -90.8424 139 138 102
26.6386 39.6772 -90.6858 97 111 67
34.4576 31.4347 -90.5385 83 105 96
32.2032 49.115 -91.044 101 118 71
33.1506 41.1716 -90.872 127 125 88
34.0007 38.8899 -90.8249 120 131 85
39.7988 30.2166 -90.7891 162 165 168
30.805 29.0997 -90.5904 100 108 69
30.0296 34.1822 -90.6493 81 107 64
36.3644 43.631 -91.0365 156 157 159
35.8841 46.3368 -91.0448 142 144 147
27.6984 31.8567 -90.5227 118 127 89
42.558 52.2906 -91.2042 147 148 151
31.2708 29.215 -90.6285 105 119 73
38.6584 29.4185 -90.7294 158 160 164
31.9096 52.2411 -91.1039 112 131 85
36.193 46.2919 -91.0162 149 149 152
44.7311 33.4198 -90.8707 160 160 163
36.5087 38.6841 -90.9811 158 157 158
33.137 35.4467 -90.4441 48 60 75
43.9907 31.1108 -90.8092 164 165 168
30.5753 34.5594 -90.6994 71 102 48
42.094 35.5703 -90.8778 159 161 165
43.0172 39.7267 -91.0293 151 151 153
45.5652 47.1051 -91.2708 154 156 160
44.7946 44.3196 -91.1206 155 160 165
27.2713 31.0871 -90.5652 104 117 73
38.3261 47.546 -91.1938 155 156 160
27.337 41.1641 -90.744 135 141 106
30.5187 33.4276 -90.7004 74 105 49
33.511 30.0992 -90.3892 56 54 63
38.0347 31.7555 -90.7912 153 151 154
41.5803 36.5471 -90.8508 158 159 163
29.0748 34.1797 -90.6548 72 98 52
32.5283 39.3537 -90.5046 52 75 102
35.3387 42.3773 -90.9983 152 151 150
30.0496 31.1408 -90.5877 93 105 64
28.4146 35.1231 -90.6228 131 145 102
38.0487 45.278 -91.0876 159 163 167
41.5231 48.8739 -91.2741 158 158 162
43.2891 40.2507 -90.972 150 150 154
44.9676 50.0351 -91.1674 148 149 154
38.0828 32.7033 -90.7169 151 152 154
28.7644 37.938 -90.7621 112 117 75
41.3009 36.8066 -90.8285 156 158 162
31.0972 37.7336 -90.0098 141 213 206
45.4198 45.0951 -91.1539 157 157 161
26.2718 48.709 -90.8925 92 118 59
29.1928 32.6533 -90.6471 83 93 56
28.3023 33.7955 -90.6581 101 114 74
33.7609 40.7794 -90.878 131 136 97
41.9224 49.7929 -91.1259 154 154 158
27.6211 40.2676 -90.7211 109 126 86
41.9393 49.1261 -91.158 156 158 161
26.7799 29.6745 -90.496 116 118 83
32.8976 47.6239 -91.032 118 134 87
35.4254 36.7304 -90.7918 148 150 115
42.9171 36.3867 -90.936 158 161 164
35.2792 34.6324 -90.7704 116 130 89
32.9724 41.2039 -90.7709 127 125 91
32.3401 50.1456 -91.0508 98 117 66
32.33 30.6726 -89.782 163 246 242
39.1466 36.4394 -90.8266 155 158 161
31.7039 44.2143 -90.3939 82 78 94
35.3417 44.2382 -90.9833 145 145 146
36.7325 44.6532 -91.03 150 152 155
28.3354 33.2393 -90.5987 92 106 67
43.7832 53.0071 -91.3602 148 150 152
37.2245 49.4553 -91.141 151 151 152
33.8904 36.3601 -90.8151 99 113 74
30.4955 43.0761 -90.0114 153 225 243
40.4639 33.4946 -90.7887 159 160 165
45.0682 36.7144 -90.9795 156 156 160
38.0273 41.3931 -90.9767 154 157 161
41.827 40.189 -91.0804 156 159 163
37.2976 45.9292 -91.0606 153 155 159
31.9319 46.6714 -90.9671 106 119 84
43.3522 36.266 -90.9565 155 159 162
40.839 38.609 -91.0168 160 163 166
39.4685 46.1749 -91.205 158 158 162
27.9915 30.7262 -90.5724 114 119 80
31.2314 48.6624 -90.6704 41 36 46
43.0106 32.6074 -90.8241 162 165 169
37.2327 30.4493 -90.7404 157 155 147
44.3437 48.3061 -91.0856 149 150 155
31.9516 36.6272 -90.0226 69 89 83
35.4396 31.3782 -90.6742 126 139 94
35.8138 49.757 -91.1418 125 125 127
38.5821 31.967 -90.738 151 152 155
37.1831 51.7319 -91.1834 132 130 133
38.0958 45.0031 -91.0274 161 164 168
40.1102 34.9381 -90.8186 157 160 165
41.1696 50.7521 -91.247 149 149 153
33.7568 46.4001 -90.9542 141 149 110
35.0216 41.1609 -90.9675 142 141 121
29.3973 48.3042 -90.0992 58 244 225
43.9626 35.8814 -90.9321 155 156 160
28.5154 34.4751 -90.6072 135 139 102
39.9066 40.1563 -90.9874 160 161 166
30.8516 32.879 -90.7576 82 105 57
29.7475 49.297 -90.1895 54 131 116
29.8712 32.5125 -90.6507 88 103 58
38.2514 53.3861 -91.2154 139 140 141
39.8864 35.0306 -90.797 155 158 162
26.5124 30.2034 -90.4434 113 117 82
42.1176 51.5493 -91.1987 149 150 154
40.96 49.621 -91.2272 160 161 165
28.9936 45.8373 -90.9089 97 114 67
33.0938 40.2398 -90.8574 107 119 75
44.9431 30.1635 -90.7875 157 159 163
44.4188 44.3673 -91.0646 154 157 162
35.2552 35.4005 -90.7982 94 112 63
30.0409 29.9965 -90.5457 102 109 75
37.8637 46.6779 -91.1357 153 155 160
28.2769 41.1257 -90.7898 113 129 69
30.5844 40.0812 -90.2416 163 213 203
41.7602 30.467 -90.8319 162 162 167
30.4604 33.362 -90.6683 76 105 49
38.3206 39.9456 -90.966 154 156 160
41.5832 38.0913 -90.8919 157 159 163
29.3677 37.3388 -90.7523 126 134 91
42.4359 46.5292 -91.1355 160 163 166
43.4188 49.0053 -91.215 155 156 160
29.6334 36.2363 -90.8119 123 135 88
40.8762 32.5686 -90.8278 156 160 163
34.6335 43.3958 -90.9776 141 141 104
43.6114 50.9724 -91.1499 147 147 152
32.4765 34.13 -90.5914 67 70 87
42.9718 53.6728 -91.2266 144 145 149
39.701 34.476 -90.8435 152 154 157
36.495 47.3933 -91.059 148 148 151
40.6164 52.0963 -91.1872 154 154 156
44.2409 29.6929 -90.7299 159 159 164
41.4126 38.4205 -90.9406 159 161 165
44.0244 42.8599 -91.1685 152 153 156
38.0558 35.43 -90.7916 153 154 158
30.4129 35.852 -90.7254 120 137 80
43.2541 45.9314 -91.1372 161 162 166
37.0653 44.2751 -91.1178 151 152 156
41.9621 40.1412 -91.0746 156 158 160
27.7627 32.7873 -90.606 111 119 82
37.9156 36.1512 -90.9037 156 157 159
43.1134 53.775 -91.3698 145 145 149
34.4657 35.0383 -90.7587 105 119 71
45.2243 32.6334 -90.8748 162 162 165
29.4986 37.5062 -90.7398 125 135 89
38.9538 48.8913 -91.3299 167 171 178
38.2989 48.6054 -91.0771 149 151 155
40.0322 29.6648 -90.7553 165 168 171
26.928 32.9259 -90.5317 118 120 82
44.712 53.4589 -91.2672 150 151 153
34.5559 39.0898 -90.796 107 122 80
40.1987 52.7904 -91.1841 149 149 151
26.6291 50.9514 -90.9116 104 115 65
43.4565 39.198 -91.1006 154 153 158
43.2227 44.493 -91.0454 154 156 159
44.6612 44.4913 -91.046 157 157 162
45.0435 41.1558 -91.057 145 146 149
38.4193 50.8105 -91.2051 148 148 150
44.3813 40.6353 -91.0401 146 146 150
33.6781 43.6055 -90.9386 117 130 85
33.1373 40.1455 -90.8788 102 116 85
38.132 43.2465 -91.0235 160 162 166
40.3549 36.8394 -91.0391 166 169 174
32.9465 40.1341 -90.7225 71 83 77
31.2584 40.6468 -90.1111 97 139 142
26.227 30.6974 -90.4756 113 117 84
42.3612 43.762 -91.1815 156 158 162
30.8066 45.674 -90.6471 38 40 44
30.5425 32.1394 -90.6612 90 108 63
26.319 42.5384 -90.7165 101 110 72
37.8558 44.6213 -90.9875 159 161 164
33.4532 53.2072 -91.1632 117 134 88
43.0525 45.4407 -91.0947 159 160 164
30.0119 53.201 -90.7826 114 124 144
36.8219 43.5003 -91.0908 156 157 161
31.6794 34.9929 -89.8685 130 220 243
28.1051 44.96 -90.8996 103 115 68
29.215 34.8785 -90.6714 93 115 61
42.5884 39.4228 -90.957 151 152 156
41.8259 48.3401 -91.1941 161 162 166
27.5093 39.9243 -90.7046 132 141 104
44.4231 39.5076 -90.9725 148 148 152
40.1958 43.3957 -91.0366 165 166 170
31.8143 37.6011 -90.1049 49 76 84
32.513 31.6497 -89.8192 103 184 200
33.1195 40.2149 -90.8161 105 119 85
35.7069 51.0351 -91.1808 108 108 110
32.0041 44.1357 -90.8159 30 26 29
34.7737 35.2834 -90.7631 115 134 85
29.255 47.6414 -90.3961 51 139 105
44.336 35.7333 -90.949 156 155 158
29.5947 52.7911 -90.9661 40 36 42
41.6999 51.2889 -91.1825 148 150 154
36.7979 37.4767 -90.8691 159 160 160
32.7996 29.4651 -89.7438 139 232 225
40.9386 39.1359 -91.0867 160 161 165
28.2914 35.2437 -90.6597 117 131 87
36.8589 43.3043 -90.9905 157 158 162
36.2784 52.4009 -91.1818 126 123 124
41.0931 43.1991 -91.0323 164 165 168
36.1621 29.2954 -90.6377 125 132 98
35.7019 37.7056 -90.8489 187 185 167
44.3661 50.9539 -91.1966 149 149 153
31.6662 36.0715 -90.2692 63 120 124
27.8042 47.3647 -90.8831 108 114 72
39.6935 42.0502 -91.0719 160 160 164
35.9656 32.0364 -90.6916 141 145 108
41.5211 50.2254 -91.2146 153 153 158
33.1266 41.1214 -90.8927 127 127 98
33.2285 44.7127 -90.9603 132 140 96
39.4837 48.5996 -91.2281 154 157 161
36.7849 41.43 -90.9778 156 158 160
36.1345 38.6312 -90.9041 149 149 149
43.9427 31.7575 -90.9275 164 167 170
43.1202 42.4709 -91.0547 155 156 158
27.3808 52.382 -90.9868 126 125 83
27.1592 42.8243 -90.7757 100 115 74
34.4653 51.9971 -91.2045 152 145 129
36.7036 44.0151 -91.1091 152 152 154
40.2658 53.5264 -91.1618 148 149 150
38.8187 53.0235 -91.212 142 141 143
44.4626 44.6656 -91.1134 153 153 158
40.4393 48.1374 -91.1361 157 158 162
41.4695 37.3974 -90.9726 158 160 165
26.8147 44.9773 -90.7924 93 108 62
43.9002 33.6929 -90.8649 158 160 163
44.288 34.0609 -90.9326 159 161 165
27.5711 50.6874 -90.9745 118 129 76
33.9003 33.5488 -90.54 60 96 107
41.0694 30.7857 -90.7876 159 163 167
39.0185 49.6049 -91.1075 147 147 151
42.2762 31.3157 -90.8303 163 166 170
37.2732 53.2591 -91.249 132 133 135
44.6649 34.6705 -90.9272 157 158 161
43.4485 47.9741 -91.1273 156 156 161
40.2686 35.9057 -90.9022 158 159 164
35.6634 44.3788 -91.0529 144 144 146
45.1765 51.1114 -91.2123 144 145 149
41.3908 53.153 -91.2137 149 150 153
39.8267 50.542 -91.1619 143 143 145
36.5436 43.9176 -90.9842 153 152 156
38.9942 44.8027 -91.0583 160 163 167
38.8791 49.3149 -91.1032 150 150 154
27.0424 46.471 -90.8146 99 110 65
29.8571 52.4462 -90.9459 36 39 47
37.7926 36.038 -90.8957 154 153 155
45.3902 51.8826 -91.2665 147 148 150
42.138 46.9322 -91.1224 161 161 165
34.5135 29.4926 -90.1206 84 83 73
41.988 43.6342 -91.0309 158 158 161
27.6188 32.6647 -90.5437 119 128 89
44.9876 45.6911 -91.1169 154 156 160
43.316 42.1711 -91.0229 151 152 155
41.2316 41.5959 -91.0467 159 160 163
29.8942 46.1949 -90.0383 153 224 241
41.849 37.3869 -91.0465 159 158 163
39.9116 34.8826 -90.8811 154 155 159
44.2589 33.6154 -90.7978 159 161 164
32.8388 37.629 -90.5214 37 48 66
28.9057 43.8369 -90.8807 104 116 68
39.4103 46.2045 -91.1089 158 158 162
36.6562 40.722 -90.8877 160 160 163
38.7665 44.1208 -91.0497 162 164 167
38.4485 40.5955 -90.974 156 157 162
29.2641 41.6676 -90.8873 128 140 86
32.0987 35.75 -90.1249 38 50 69
41.7868 51.7763 -91.1582 151 151 155
31.136 36.7831 -90.1581 112 171 164
40.1903 45.1855 -91.1085 166 166 171
36.5763 43.2739 -91.0314 153 156 159
36.4322 41.8616 -90.9597 159 159 161
40.1648 29.2982 -90.7528 163 166 171
30.6465 30.4243 -90.6283 93 102 65
28.8415 47.4402 -90.9741 101 118 65
34.0045 33.1725 -90.4531 68 80 77
37.511 32.0963 -90.8087 149 150 151
38.2347 37.7565 -90.9212 155 157 160
42.7072 45.6753 -91.1302 162 162 166
26.2617 45.8277 -90.7848 98 114 72
43.598 52.1299 -91.3052 144 145 148
34.3949 46.1292 -91.0227 149 142 115
31.9158 34.397 -89.801 126 212 235
31.1205 29.5277 -90.5628 102 118 69
36.4839 35.7726 -90.7984 149 149 148
43.6048 51.5019 -91.2771 146 146 150
30.1816 34.446 -90.678 59 94 46
34.2861 43.5194 -90.931 152 150 117
35.3804 39.2323 -90.888 160 155 140
38.3187 47.5873 -91.1581 155 156 160
41.8967 50.2178 -91.1986 154 154 158
38.8246 44.5572 -91.0224 163 164 168
45.3781 38.3269 -90.9784 152 152 155
33.7136 49.1804 -91.0619 155 149 121
27.0669 41.6346 -90.751 107 114 82
45.3915 37.7015 -90.9549 155 155 159
39.1319 42.7272 -91.0249 162 164 168
43.8142 43.3913 -91.1155 153 154 157
26.5079 31.0177 -90.5298 112 117 84
39.8366 45.734 -91.1142 160 163 167
42.3508 52.5723 -91.2428 143 143 147
30.665 42.1491 -90.0384 151 221 240
31.8949 53.4846 -91.1885 101 118 70
35.3764 31.5829 -90.7087 124 129 90
40.8524 42.9449 -91.0168 165 166 170
44.7138 50.769 -91.1556 149 150 154
42.121 48.1275 -91.0928 160 161 164
45.021 37.4161 -90.9401 154 156 160
43.4859 46.854 -91.0969 159 160 164
29.4831 46.197 -90.6806 29 52 50
44.9494 41.6286 -91.095 147 147 151
26.3445 36.0842 -90.5408 110 111 76
41.0075 49.1419 -91.1747 160 161 165
44.804 29.2157 -90.707 153 154 159
43.6381 40.659 -91.134 148 150 154
43.9205 36.816 -90.926 155 156 159
40.2185 49.3164 -91.1071 169 167 165
32.835 53.4717 -91.1322 94 118 66
44.6431 36.2743 -90.9181 155 158 161
31.3604 38.1303 -89.9849 164 232 225
30.143 31.8684 -90.6349 81 100 54
40.04 34.9278 -90.8479 155 158 162
39.9921 46.77 -91.1392 162 161 165
42.1115 47.2496 -91.2077 161 162 164
33.1886 45.3737 -90.9136 129 140 96
36.4432 42.1407 -90.9471 157 157 159
30.0417 50.3521 -90.9852 38 43 49
44.8016 30.4368 -90.8864 160 162 165
39.4561 45.5386 -91.0795 158 161 166
26.5106 41.7041 -90.7188 107 110 79
41.5887 50.3674 -91.2157 152 153 158
41.7648 51.8278 -91.1758 151 151 155
42.8751 31.0225 -90.8699 160 164 168
32.7793 36.3275 -90.3447 100 117 140
27.1375 46.4013 -90.8958 93 107 61
30.8663 37.4181 -90.3282 57 101 85
39.3443 48.4381 -91.1214 148 151 156
40.6782 40.06 -91.0221 160 164 167
29.4972 41.5951 -90.8846 125 136 83
34.9046 31.8094 -90.646 109 127 76
34.9466 31.008 -90.5889 92 113 68
28.0747 40.0484 -90.73 104 123 66
39.2058 48.6133 -91.185 150 149 153
41.8798 45.8171 -91.1034 166 166 169
28.0083 33.1712 -90.6631 102 115 75
38.5967 46.4182 -91.1446 157 161 165
29.1937 31.3787 -90.5671 91 107 66
45.0674 33.1402 -90.8467 161 162 165
29.602 45.4507 -90.4567 69 125 159
42.442 48.2391 -91.2375 158 158 162
31.1405 47.8709 -90.6849 70 64 79
32.4399 33.5246 -90.2278 48 58 72
34.3849 50.1456 -91.1346 123 124 123
41.7105 51.4942 -91.2119 148 151 154
26.3078 33.5825 -90.5235 121 113 90
39.4206 43.4046 -90.967 160 162 166
35.2657 53.5783 -91.2002 152 139 106
28.0813 49.192 -90.9435 103 115 63
29.3105 38.3704 -90.7853 121 130 88
27.0971 43.5221 -90.7896 89 108 60
41.7752 36.0314 -90.9969 160 160 164
29.5041 31.8998 -90.5871 75 98 51
28.0323 29.7747 -90.5079 109 118 77
38.7429 35.4517 -90.8478 153 153 156
38.1171 35.7058 -90.8598 155 158 160
44.5895 50.8482 -91.2279 149 150 154
31.7972 37.216 -90.1145 77 115 116
29.3065 34.8396 -90.7067 93 113 58
29.7317 49.1455 -90.1474 75 158 149
44.2733 31.8386 -90.7693 162 166 168
40.5287 30.474 -90.9156 159 158 163
39.3718 29.1762 -90.6696 158 159 164
35.9195 43.6176 -90.9594 156 156 158
41.6768 33.4659 -90.8244 157 161 164
37.7885 43.4045 -91.0548 158 160 164
42.2887 48.4114 -91.2745 158 160 164
28.1927 47.8686 -90.9541 116 124 79
36.9562 47.65 -91.1496 148 148 152
45.2896 31.9868 -90.8138 160 161 164
31.54 49.8992 -91.0172 102 125 78
29.3935 41.7969 -90.8316 127 137 86
31.2182 35.4812 -90.0818 53 119 156
30.8105 35.5635 -90.6539 119 124 77
45.3604 47.8115 -91.1748 152 153 157
38.0638 46.6056 -91.1591 156 157 161
40.2532 32.4313 -90.8442 153 157 160
32.8861 36.1346 -90.2977 104 109 134
44.9469 37.6791 -90.9354 155 158 161
29.4474 31.9414 -90.7073 79 98 52
44.6201 46.3903 -91.078 153 155 159
37.0768 38.5525 -90.855 157 158 161
31.6411 53.4584 -91.1933 109 130 83
39.5351 40.3849 -90.9819 161 162 166
26.4717 36.0548 -90.563 107 110 73
28.4435 35.7115 -90.6151 120 133 88
34.0798 41.1081 -90.8712 114 124 84
35.8122 41.8404 -91.0746 153 154 155
39.345 46.5394 -91.1209 162 164 169
43.7277 50.5924 -91.2105 146 147 151
29.6596 40.3667 -90.8739 120 134 72
31.5552 37.4327 -90.0539 147 230 222
31.4313 33.596 -90.3828 77 85 92
34.6818 41.4425 -90.8868 143 141 109
34.4376 41.5746 -90.9064 139 141 109
32.1506 36.7426 -90.2755 61 60 85
39.0829 44.4472 -91.0219 163 164 169
26.808 48.7152 -90.8951 95 116 61
26.9405 51.1535 -90.9875 106 110 68
43.6925 34.6587 -90.8628 158 158 161
30.2163 50.8548 -90.8768 34 40 50
28.2569 36.6552 -90.6278 134 136 100
40.2775 50.4126 -91.2242 149 152 155
35.294 51.8571 -91.2143 109 107 109
40.8298 34.4147 -90.877 159 161 166
45.1601 38.4223 -90.9597 152 152 157
26.5318 48.2926 -90.9036 99 118 62
26.989 38.533 -90.6323 86 108 57
40.6448 37.405 -90.9258 159 162 167
30.9609 48.2258 -90.6034 113 113 132
40.2222 47.6177 -91.113 154 158 162
42.7017 48.7685 -91.1407 156 157 160
42.1515 34.1241 -90.8654 159 162 166
40.7122 52.0235 -91.2077 154 154 157
37.8987 44.8401 -91.0515 159 160 164
28.5356 32.7133 -90.6411 90 105 63
28.0603 37.7163 -90.6585 141 142 110
44.3382 42.0642 -91.0505 150 152 154
32.5198 45.2973 -90.9299 101 119 73
33.095 36.2768 -90.2278 42 43 55
44.2586 51.4418 -91.3013 145 147 151
42.6211 29.8015 -90.7518 162 164 168
45.27 29.8698 -90.8188 152 155 159
39.8402 45.3729 -91.1539 163 164 168
32.5843 36.2232 -90.3267 89 98 119
34.7586 45.5957 -91.0523 137 128 119
40.8336 47.8933 -91.1337 160 164 168
31.118 31.6697 -90.6408 80 97 55
43.5845 53.2729 -91.2255 148 150 152
33.7704 39.4748 -90.8542 115 129 82
33.5237 36.1623 -90.4255 61 73 66
41.7937 34.6598 -90.8504 158 161 165
40.6741 44.7093 -91.0228 165 168 172
40.0224 34.4616 -90.8796 155 159 162
30.228 38.7334 -90.7688 87 106 61
34.3032 33.5275 -90.7018 114 127 82
31.9346 37.5224 -90.1438 42 57 60
35.3331 38.6814 -90.9005 145 144 110
43.2277 51.9157 -91.2179 144 143 146
26.4096 37.7174 -90.6317 104 113 72
37.7582 44.6219 -91.0241 158 161 164
37.4592 52.5359 -91.1555 130 131 134
45.1458 42.6269 -91.0616 150 150 154
28.0237 40.8665 -90.8081 107 125 65
44.7707 39.8305 -90.9932 146 148 152
41.2945 45.9852 -91.0993 169 169 172
28.6943 30.9274 -90.5718 88 108 63
37.0542 44.2858 -91.0115 151 152 156
42.0402 43.7178 -91.1013 157 157 161
40.9619 43.3942 -90.9981 163 166 169
27.413 32.5418 -90.5723 118 122 85
39.4761 39.1262 -90.9614 159 160 164
40.9823 29.6662 -90.8352 163 164 169
40.6482 52.9994 -91.1736 148 149 151
43.955 34.7317 -90.9183 155 160 163
37.0982 37.7359 -90.9167 163 164 166
37.4975 38.7288 -90.8923 156 157 161
40.2495 44.9587 -91.0213 165 167 171
27.9007 31.6548 -90.5606 115 122 88
35.4834 51.1164 -91.1933 107 105 108
43.6606 43.644 -91.084 152 152 156
41.4199 51.2982 -91.2849 146 147 151
42.5337 49.2083 -91.28 155 155 159
36.2838 37.6664 -90.9184 151 150 151
36.0425 41.7056 -90.937 158 159 161
27.9403 32.58 -90.5864 107 116 79
29.9452 34.5415 -90.6895 64 94 48
35.5109 38.614 -90.897 159 155 128
33.452 33.2441 -90.2631 97 93 111
29.5943 29.9146 -90.6143 97 110 69
38.3235 34.1676 -90.8298 153 153 157
31.3505 34.2103 -90.1865 46 94 97
27.9975 50.0466 -90.9558 99 115 63
31.9257 34.8301 -89.8475 121 202 226
41.1348 29.8003 -90.7124 163 165 169
27.1943 33.7041 -90.5569 106 112 77
38.2803 53.4131 -91.2393 139 140 141
41.2203 33.2747 -90.8063 156 159 163
36.9067 37.131 -90.9366 158 159 160
26.2298 40.5494 -90.6564 102 117 76
44.1292 39.0202 -90.9493 147 150 154
38.4181 34.5563 -90.8831 154 155 158
31.3313 36.3089 -90.0837 125 198 193
41.8074 45.2002 -91.1155 166 167 170
36.0947 36.9763 -90.8606 163 161 160
44.5837 43.7075 -91.0511 154 158 161
38.781 41.7558 -91.0361 161 162 167
29.0184 41.8829 -90.8494 131 142 90
29.9845 45.8457 -90.0391 166 225 244
38.6798 49.798 -91.1434 138 139 143
31.295 46.4314 -90.6404 86 86 101
37.8216 34.115 -90.8579 148 148 151
35.372 41.764 -90.9859 150 149 147
27.2233 29.3073 -90.4306 103 110 70
44.0513 32.1448 -90.9003 162 165 168
45.4878 52.4704 -91.3954 146 147 150
26.4439 51.6199 -90.993 105 113 69
31.7956 49.506 -91.0219 113 122 79
30.4464 35.8165 -90.7853 120 137 80
41.0189 39.1488 -90.9714 161 162 165
44.4334 29.8802 -90.8134 161 160 165
29.4564 43.4107 -90.909 105 120 68
27.6447 45.6351 -90.8598 92 102 58
29.3071 37.8347 -90.7417 121 129 84
31.7105 34.9919 -89.7767 129 220 243
34.7375 42.5046 -90.971 143 143 107
31.5511 49.1557 -90.8791 143 141 119
34.0053 44.463 -90.9409 166 166 133
35.4581 40.3446 -90.9405 173 171 172
33.5696 52.9024 -91.1703 106 120 76
37.6266 45.5918 -91.0444 156 157 161
32.3348 38.343 -90.3877 71 81 98
40.3403 47.887 -91.134 154 157 160
29.8917 53.1958 -90.8615 80 87 109
39.5441 37.3094 -90.8855 157 160 164
42.8798 39.2166 -90.9896 151 151 156
27.7396 34.826 -90.6131 104 115 73
36.2628 36.7723 -90.8562 151 150 150
32.2815 34.4548 -90.3177 50 66 79
26.6839 46.5232 -90.8171 91 109 63
40.7714 42.1598 -91.0638 162 164 168
38.4871 45.0445 -91.1811 163 163 167
29.5022 53.1913 -90.9494 41 44 52
